1538.76 768.761 2343 154 163 152
1556.47 774.339 2360 154 163 152
1575.61 780.573 2379 154 163 152
208.466 179.342 542 186 163 133
214.62 183.312 554 187 164 134
219.28 185.96 562 189 166 136
222.805 187.614 567 191 168 138
226.358 189.268 572 193 170 138
229.142 190.261 575 192 169 137
231.943 191.254 578 194 171 141
233.952 191.585 579 194 171 141
235.966 191.916 580 194 171 141
237.986 192.246 581 188 165 135
240.012 192.577 582 188 165 135
242.874 193.57 585 186 163 133
245.752 194.563 588 185 162 132
247.805 194.894 589 183 159 131
250.288 195.555 591 182 158 130
252.782 196.217 593 184 160 132
255.286 196.879 595 186 162 134
257.802 197.541 597 186 164 136
259.894 197.872 598 186 164 136
261.992 198.202 599 182 165 135
264.536 198.864 601 183 162 132
267.534 199.857 604 178 164 141
969.321 710.749 2148 186 161 128
978.463 713.066 2155 187 163 127
986.731 714.72 2160 183 159 123
994.108 715.713 2163 183 158 125
1002.89 717.698 2169 184 159 126
1010.77 719.022 2173 184 159 126
1018.21 720.014 2176 180 157 125
1025.66 721.007 2179 180 157 127
1032.66 721.669 2181 179 156 126
1040.15 722.661 2184 180 156 128
1047.17 723.323 2186 183 161 133
1056.13 725.309 2192 186 167 138
1063.67 726.301 2195 180 166 146
1071.71 727.625 2199 177 167 150
1079.78 728.948 2203 185 179 163
1086.88 729.61 2205 194 194 192
1093.5 729.941 2206 193 197 199
1099.13 729.61 2205 190 196 198
1105.75 729.941 2206 205 213 212
1114.4 731.595 2211 212 219 216
1122.06 732.588 2214 169 176 172
1130.24 733.912 2218 150 156 149
1135.38 733.25 2216 153 160 149
1145.14 735.566 2223 153 158 146
1154.94 737.882 2230 156 161 149
1163.73 739.537 2235 155 160 148
1171.51 740.529 2238 153 158 146
1177.2 740.199 2237 156 161 149
1185.52 741.522 2241 155 160 148
1192.81 742.184 2243 155 160 148
1201.18 743.507 2247 153 160 148
1209.57 744.831 2251 154 161 149
1217.98 746.155 2255 153 160 148
1225.32 746.816 2257 154 161 149
1232.14 747.147 2258 155 162 150
1238.96 747.478 2259 154 161 149
1248.54 749.464 2265 153 160 148
1258.7 751.78 2272 154 161 149
1266.13 752.441 2274 153 160 149
1273.56 753.103 2276 157 162 151
1277.07 751.449 2271 156 161 150
1285.07 752.441 2274 154 159 148
1292.52 753.103 2276 153 158 147
1301.12 754.427 2280 156 161 150
1308.6 755.089 2282 155 162 151
1317.24 756.412 2286 156 163 152
1324.75 757.074 2288 155 162 151
1330.52 756.743 2287 157 164 153
1335.7 756.081 2285 156 163 152
1344.39 757.405 2289 156 163 152
1354.88 759.721 2296 154 161 150
1364.81 761.706 2302 156 163 152
1370.01 761.045 2300 155 161 153
1373.41 759.39 2295 156 162 154
1379.78 759.39 2295 155 161 153
1389.17 761.045 2300 156 162 154
1401.02 764.023 2309 156 162 154
1406.82 763.692 2308 154 160 152
1407.11 760.383 2298 155 161 153
1413.49 760.383 2298 157 163 155
1426.05 763.692 2308 154 160 152
1438.66 767.001 2318 154 162 154
1446.35 767.662 2320 153 161 153
1451.54 767.001 2318 153 161 153
1464.89 770.64 2329 152 160 152
1475.78 772.957 2336 154 163 152
1485.44 774.611 2341 152 161 150
1493.22 775.273 2343 153 162 151
1493.32 771.964 2333 151 160 149
1494.01 768.986 2324 152 161 150
1501.11 769.317 2325 154 163 152
1512.75 771.964 2333 155 162 151
1519.23 771.964 2333 152 161 150
1526.37 772.295 2334 152 161 150
1539.41 775.604 2344 154 163 152
1549.22 777.258 2349 154 163 152
1565.01 781.891 2363 154 163 152
196.025 168.836 506 197 174 144
205.234 175.509 526 195 172 142
212.588 180.514 541 196 173 143
218.048 183.851 551 198 175 145
223.165 186.854 560 197 176 146
227.529 189.19 567 194 173 143
231.527 191.192 573 198 177 147
234.746 192.527 577 198 175 145
237.577 193.528 580 194 171 141
240.425 194.529 583 190 167 137
242.874 195.196 585 191 167 139
245.334 195.863 587 188 164 136
247.385 196.197 588 184 160 132
249.017 196.197 588 185 161 133
252.355 197.532 592 188 164 136
254.857 198.199 594 189 165 137
257.37 198.866 596 189 165 137
259.025 198.866 596 186 164 136
261.118 199.2 597 185 163 135
263.215 199.534 598 182 162 136
265.319 199.867 599 183 162 142
977.101 718.054 2152 190 168 134
985.361 719.722 2157 188 166 132
993.648 721.39 2162 185 163 129
1003.35 724.06 2170 184 162 128
1011.24 725.394 2174 185 162 130
1018.68 726.396 2177 182 159 127
1026.61 727.73 2181 182 159 129
1034.08 728.731 2184 180 157 127
1040.62 729.065 2185 181 157 129
1047.17 729.398 2186 181 159 131
1055.17 730.733 2190 183 164 135
1063.67 732.401 2195 182 166 142
1071.23 733.403 2198 180 168 141
1078.8 734.404 2201 180 168 149
1085.9 735.071 2203 175 167 150
1091.52 734.737 2202 203 198 187
1098.63 735.405 2204 190 197 193
1105.75 736.072 2206 203 211 208
1115.91 738.741 2214 210 217 216
1123.07 739.409 2216 213 220 217
1130.24 740.076 2218 175 182 178
1135.38 739.409 2216 150 156 149
1143.59 740.743 2220 155 162 151
1152.86 742.745 2226 154 161 149
1161.13 744.08 2230 152 159 147
1170.46 746.082 2236 152 160 145
1177.72 746.749 2238 155 162 150
1185 747.417 2240 154 161 149
1190.68 747.083 2239 152 159 147
1196.37 746.749 2238 154 161 150
1206.34 749.085 2245 152 159 148
1215.82 751.087 2251 153 160 148
1224.24 752.422 2255 154 161 149
1229.95 752.088 2254 153 160 148
1236.21 752.088 2254 154 161 149
1247.43 755.091 2263 153 160 148
1258.15 757.76 2271 154 161 149
1266.68 759.095 2275 156 163 151
1273 759.095 2275 156 161 150
1275.38 756.759 2268 155 160 149
1283.37 757.76 2271 152 157 146
1291.38 758.761 2274 148 153 142
1301.12 760.763 2280 154 161 150
1308.6 761.431 2282 155 162 151
1316.09 762.098 2284 155 162 150
1324.75 763.433 2288 155 162 150
1329.35 762.432 2285 155 162 150
1333.36 761.097 2281 155 162 151
1339.11 760.763 2280 155 162 151
1350.16 763.433 2288 155 162 151
1361.85 766.436 2297 155 162 151
1368.82 766.769 2298 153 159 151
1373.41 765.768 2295 156 162 154
1382.18 767.103 2299 155 161 153
1388.57 767.103 2299 155 161 153
1399.2 769.439 2306 155 161 153
1404.99 769.105 2305 154 160 152
1409.56 768.104 2302 152 160 152
1411.03 765.435 2294 155 161 153
1425.43 769.772 2307 152 160 152
1436.8 772.442 2315 155 163 155
1444.48 773.109 2317 153 161 153
1451.54 773.443 2318 155 161 153
1461.12 775.111 2323 155 161 153
1475.15 779.115 2335 154 161 150
1482.27 779.449 2336 154 161 150
1486.84 778.448 2333 153 162 151
1492.68 778.114 2332 151 160 149
1497.23 777.113 2329 155 162 151
1506.92 778.781 2334 153 160 149
1517.94 781.117 2341 155 162 151
1529 783.453 2348 154 161 150
1536.17 783.786 2349 154 161 150
1542.62 780.45 2339 155 164 153
1561.04 786.456 2357 153 162 151
1572.24 788.791 2364 155 164 153
206.427 174.28 518 195 173 145
216.694 181.682 540 194 172 144
224.254 186.728 555 194 172 144
230.677 190.766 567 195 171 143
235.529 193.457 575 192 168 140
239.187 195.139 580 192 168 140
241.628 195.812 582 190 166 138
244.08 196.485 584 190 166 138
246.123 196.822 585 189 165 137
248.17 197.158 586 187 163 135
251.076 198.167 589 185 161 133
253.999 199.177 592 189 165 137
256.507 199.85 594 187 163 135
258.156 199.85 594 189 165 137
259.805 199.85 594 189 165 137
261.895 200.186 595 186 164 136
263.99 200.523 596 179 160 131
267.428 201.868 600 179 161 135
983.534 724.371 2153 194 171 141
991.81 726.053 2158 194 171 141
1001.04 728.408 2165 189 166 136
1009.84 730.427 2171 189 166 136
1017.27 731.436 2174 186 163 133
1024.72 732.446 2177 185 162 132
1032.66 733.792 2181 183 159 131
1040.62 735.137 2185 182 158 130
1047.17 735.474 2186 186 162 134
1053.72 735.81 2187 186 162 134
1061.73 737.156 2191 186 164 136
1069.76 738.502 2195 185 166 137
1076.84 739.175 2197 182 165 135
1084.42 740.184 2200 177 163 140
1090.53 740.184 2200 183 173 156
1097.63 740.857 2202 188 190 182
1105.25 741.866 2205 195 203 196
1115.41 744.558 2213 205 212 209
1124.59 746.576 2219 209 216 213
1131.77 747.249 2221 214 221 217
1138.97 747.922 2223 165 173 166
1144.62 747.586 2222 150 156 148
1153.9 749.605 2228 154 161 150
1161.13 750.277 2230 150 157 145
1170.46 752.296 2236 153 161 146
1176.67 752.296 2236 153 160 148
1184.47 753.305 2239 154 161 149
1189.62 752.633 2237 153 160 148
1195.83 752.633 2237 152 159 148
1202.04 752.633 2237 152 159 148
1212.58 755.324 2245 152 159 148
1222.07 757.343 2251 154 161 149
1229.95 758.352 2254 153 160 148
1236.76 758.689 2255 151 158 146
1246.88 761.044 2262 155 162 150
1259.26 764.745 2273 156 163 151
1268.35 766.427 2278 154 161 149
1274.68 766.427 2278 155 160 148
1275.38 763.062 2268 153 160 148
1281.68 763.062 2268 153 160 148
1289.11 763.735 2270 143 150 138
1299.41 766.09 2277 155 162 150
1306.3 766.427 2278 153 162 150
1312.05 766.09 2277 155 162 150
1322.43 768.446 2284 155 162 150
1329.94 769.118 2286 155 162 151
1335.7 768.782 2285 156 163 152
1339.69 767.436 2281 157 164 153
1351.34 770.464 2290 155 162 151
1358.88 771.137 2292 154 161 150
1367.03 772.146 2295 154 160 152
1375.2 773.156 2298 155 162 151
1380.38 772.483 2296 155 162 151
1387.96 773.156 2298 155 162 151
1396.17 774.165 2301 155 162 151
1406.82 776.52 2308 156 163 152
1409.56 774.502 2302 152 161 150
1415.33 774.165 2301 154 163 152
1422.34 774.502 2302 155 164 153
1433.7 777.193 2310 153 162 151
1438.24 776.184 2307 154 162 154
1466.3 780.894 2321 153 160 149
1477.19 783.249 2328 155 161 153
1480.47 781.567 2323 151 160 149
1483.08 779.548 2317 154 161 150
1499.16 784.595 2332 154 161 150
1514.67 789.305 2346 155 162 151
1526.37 791.997 2354 155 162 151
1530.3 790.651 2350 152 161 150
1532.9 788.632 2344 155 163 155
1560.38 792.67 2356 155 164 153
207.284 174.023 513 183 160 130
221.32 184.539 544 189 165 137
231.433 191.663 565 189 165 137
237.538 195.394 576 189 165 137
241.628 197.43 582 187 163 135
244.08 198.108 584 183 159 131
246.123 198.447 585 184 161 131
247.323 198.108 584 185 161 133
249.798 198.787 586 183 159 131
252.712 199.804 589 184 160 132
255.643 200.822 592 186 162 134
257.721 201.161 593 188 164 136
258.931 200.822 592 188 164 136
260.574 200.822 592 187 165 137
262.661 201.161 593 184 162 134
265.645 202.179 596 181 162 133
270.439 204.554 603 178 160 134
993.648 733.408 2162 198 175 145
1002.43 735.443 2168 196 173 143
1009.84 736.461 2171 190 167 137
1016.81 737.139 2173 191 167 139
1024.72 738.496 2177 188 164 136
1033.13 740.192 2182 184 160 132
1041.1 741.549 2186 185 161 133
1047.17 741.549 2186 189 165 137
1052.76 741.21 2185 189 165 137
1058.82 741.21 2185 186 164 136
1067.33 742.906 2190 185 163 135
1076.35 744.941 2196 185 163 135
1085.41 746.977 2202 183 160 137
1091.52 746.977 2202 185 164 144
1097.63 746.977 2202 170 161 148
1105.75 748.333 2206 195 191 181
1114.9 750.369 2212 209 213 206
1125.1 753.083 2220 212 217 214
1132.28 753.761 2222 209 214 210
1139.99 754.779 2225 210 216 209
1145.65 754.44 2224 148 154 147
1154.42 756.136 2229 150 156 148
1162.17 757.153 2232 153 160 149
1168.37 757.153 2232 154 161 149
1176.14 758.171 2235 150 159 147
1182.88 758.51 2236 150 159 148
1190.15 759.189 2238 152 161 150
1195.83 758.85 2237 154 161 150
1203.12 759.528 2239 153 160 149
1212.04 761.224 2244 154 161 150
1220.98 762.92 2249 155 160 149
1228.86 763.938 2252 153 158 146
1237.31 765.295 2256 155 160 148
1245.23 766.312 2259 154 161 149
1257.04 769.705 2269 154 161 149
1265.01 770.722 2272 153 160 148
1273 771.74 2275 153 160 148
1274.26 768.687 2266 155 162 150
1281.11 769.026 2267 154 161 149
1289.11 770.044 2270 138 145 133
1300.55 773.097 2279 154 161 149
1306.3 772.758 2278 152 161 149
1310.9 771.74 2275 154 161 149
1319.53 773.097 2279 155 162 150
1329.35 775.132 2285 154 161 149
1335.7 775.132 2285 156 163 152
1340.28 774.115 2282 155 162 151
1350.16 776.15 2288 154 161 150
1357.7 776.829 2290 155 162 151
1365.84 777.846 2293 156 163 152
1371.61 777.507 2292 151 158 147
1380.38 778.864 2296 154 161 150
1384.34 777.507 2292 154 161 150
1395.56 780.221 2300 155 162 151
1405.6 782.256 2306 153 162 151
1410.17 781.238 2303 152 161 150
1416.56 781.238 2303 152 161 150
1426.67 783.274 2309 153 162 151
1436.18 784.97 2314 154 163 152
1434.5 780.56 2301 154 163 152
1441.52 780.899 2302 155 162 151
1465.67 787.005 2320 156 163 152
1472.12 787.005 2320 153 160 149
1477.28 786.327 2318 152 159 148
1483.72 786.327 2318 150 157 146
1494.01 788.362 2324 152 161 149
1517.9 797.521 2351 151 160 149
1529.61 800.235 2359 153 162 151
1532.91 798.539 2354 152 161 150
1532.25 794.808 2343 152 160 152
1547.24 795.825 2346 154 162 154
1547.13 792.433 2336 152 161 150
220.373 183.999 538 183 160 128
231.764 192.207 562 185 162 130
238.307 196.311 574 182 157 125
242.408 198.363 580 179 154 122
244.44 198.705 581 178 153 121
246.053 198.705 581 179 154 122
248.519 199.389 583 181 158 126
251.854 200.757 587 182 159 129
253.916 201.099 588 181 158 128
255.983 201.441 589 181 158 128
257.181 201.099 588 183 159 131
259.254 201.441 589 184 160 132
261.332 201.783 590 185 161 133
264.308 202.809 593 184 160 132
267.3 203.835 596 181 159 131
993.648 739.416 2162 194 172 144
1001.5 740.784 2166 195 171 143
1008.91 741.81 2169 192 168 140
1015.4 742.152 2170 191 167 139
1023.31 743.52 2174 190 166 138
1032.66 745.914 2181 189 165 137
1041.1 747.624 2186 187 163 135
1048.13 748.308 2188 186 162 134
1051.79 746.598 2183 188 164 136
1057.85 746.598 2183 189 165 137
1066.35 748.308 2188 190 166 138
1075.37 750.36 2194 189 165 137
1082.94 751.386 2197 183 161 133
1088.55 751.044 2196 181 162 133
1096.64 752.412 2200 176 160 137
1105.75 754.464 2206 177 159 133
1113.9 755.832 2210 185 177 161
1124.09 758.568 2218 216 213 199
1130.24 758.568 2218 215 217 209
1138.45 759.936 2222 216 217 211
1144.62 759.936 2222 210 214 206
1152.86 761.304 2226 150 154 146
1160.61 762.331 2229 155 160 149
1166.8 762.331 2229 154 161 149
1174.57 763.357 2232 151 158 146
1181.82 764.041 2234 155 162 151
1189.62 765.067 2237 153 160 149
1196.9 765.751 2239 151 157 149
1203.12 765.751 2239 152 158 150
1209.33 765.751 2239 153 160 149
1216.64 766.435 2241 154 159 148
1225.04 767.803 2245 155 160 149
1236.21 770.881 2254 156 161 150
1243.02 771.223 2255 154 159 147
1253.72 773.959 2263 153 158 146
1261.11 774.643 2265 154 161 149
1270.2 776.353 2270 153 160 148
1273.13 774.301 2264 155 162 150
1280.55 774.985 2266 152 159 147
1287.98 775.669 2268 139 147 132
1298.27 778.063 2275 154 161 149
1303.44 777.379 2273 155 162 150
1307.44 776.011 2269 154 161 149
1313.74 776.011 2269 155 162 150
1324.12 778.405 2276 155 162 151
1331.61 779.089 2278 156 163 152
1336.76 778.405 2276 156 163 152
1346.62 780.457 2282 155 162 151
1357.7 783.193 2290 155 162 151
1367.03 784.903 2295 154 161 149
1375.2 785.929 2298 156 163 151
1379.18 784.561 2294 155 163 148
1385.55 784.561 2294 155 162 150
1391.92 784.561 2294 155 162 150
1402.56 786.955 2301 154 163 151
1406.5 785.587 2297 153 162 150
1417.18 787.981 2304 152 161 149
1424.81 788.665 2306 153 162 151
1431.22 788.665 2306 154 163 152
1431.38 785.245 2296 154 163 152
1441.52 787.297 2302 156 163 152
1468.31 791.401 2314 153 160 149
1476.65 792.427 2317 154 161 150
1483.08 792.427 2317 152 159 148
1492.73 794.137 2322 150 159 148
1502.4 795.847 2327 152 161 150
1526.37 805.081 2354 154 163 152
1530.3 803.713 2350 152 161 150
1532.9 801.661 2344 150 158 150
1561.04 806.107 2357 154 163 152
1568.92 806.791 2359 152 161 150
223.104 186.529 541 177 152 119
234.986 195.148 566 177 152 119
240.737 198.596 576 172 147 114
243.598 199.63 579 163 138 105
245.629 199.975 580 164 139 106
248.519 201.01 583 167 142 110
250.567 201.354 584 170 145 113
253.052 202.044 586 169 146 116
254.245 201.699 585 173 150 120
255.869 201.699 585 177 153 125
257.933 202.044 586 178 155 125
260.889 203.078 589 177 154 124
263.416 203.768 591 183 159 131
266.851 205.147 595 182 160 132
269.857 206.181 598 179 157 129
1001.04 746.459 2165 192 168 140
1007.52 746.804 2166 189 165 137
1014 747.149 2167 187 163 135
1021.43 748.183 2170 183 159 131
1030.77 750.596 2177 184 161 131
1038.72 751.976 2181 185 161 133
1046.69 753.355 2185 183 159 131
1051.31 752.32 2182 185 161 133
1057.85 752.665 2183 184 160 132
1066.35 754.389 2188 188 164 136
1075.37 756.458 2194 188 164 136
1083.43 757.837 2198 187 165 137
1089.54 757.837 2198 182 160 132
1098.13 759.561 2203 179 161 135
1106.76 761.285 2208 181 158 135
1114.4 762.319 2211 171 157 137
1122.06 763.353 2214 176 166 149
1128.21 763.353 2214 186 182 168
1135.89 764.388 2217 214 210 199
1143.59 765.422 2220 221 219 208
1151.31 766.457 2223 193 191 180
1159.57 767.836 2227 158 155 139
1167.32 768.87 2230 160 159 143
1177.2 771.284 2237 158 160 143
1182.35 770.594 2235 152 157 143
1189.62 771.284 2237 154 159 147
1196.9 771.973 2239 151 158 147
1205.8 773.697 2244 152 158 150
1210.96 773.007 2242 152 158 150
1216.09 772.318 2240 153 159 151
1222.86 772.663 2241 156 161 150
1234.02 775.766 2250 155 160 149
1241.92 776.8 2253 155 160 149
1252.61 779.558 2261 155 160 149
1258.33 779.214 2260 155 160 149
1267.4 780.938 2265 153 160 149
1270.88 779.214 2260 153 160 149
1277.72 779.558 2261 152 159 147
1286.84 781.282 2266 139 146 134
1297.13 783.696 2273 156 163 151
1303.44 783.696 2273 153 160 148
1309.75 783.696 2273 155 162 151
1316.06 783.696 2273 154 161 149
1325.28 785.42 2278 155 162 151
1329.85 784.385 2275 157 164 153
1336.17 784.385 2275 154 161 150
1346.62 786.799 2282 155 162 150
1359.48 790.591 2293 155 162 150
1370.61 793.35 2301 156 163 151
1374.01 791.626 2296 154 162 147
1379.18 790.936 2294 155 163 148
1384.94 790.591 2293 155 162 150
1394.35 792.315 2298 154 161 149
1400.73 792.315 2298 153 162 150
1405.88 791.626 2296 152 161 149
1416.56 794.039 2303 153 162 150
1423.58 794.384 2304 151 160 149
1428.11 793.35 2301 153 162 151
1430.14 790.936 2294 155 162 151
1440.89 793.35 2301 154 161 150
1453.57 796.798 2311 154 161 150
1481.8 798.177 2315 149 158 147
1490.16 799.211 2318 153 162 151
1504.99 803.693 2331 153 162 151
1515.35 805.762 2337 152 161 150
1521.84 805.762 2337 152 160 152
1534.87 809.21 2347 152 160 152
1534.16 805.417 2336 151 159 151
1554.42 809.21 2347 152 161 150
1570.91 814.382 2362 154 163 151
227.928 190.813 549 165 140 104
237.393 197.416 568 165 140 104
241.915 199.849 575 160 133 97
245.206 201.24 579 153 126 90
247.666 201.935 581 154 126 93
249.709 202.282 582 159 131 99
250.893 201.935 581 156 130 98
252.506 201.935 581 163 137 105
254.557 202.282 582 167 142 110
257.053 202.977 584 173 148 116
260.004 204.02 587 174 151 119
262.525 204.715 589 175 152 122
265.506 205.758 592 179 156 126
268.955 207.148 596 181 158 128
272.88 208.886 601 179 156 126
1005.65 751.433 2162 191 168 138
1012.13 751.781 2163 185 162 130
1019.54 752.823 2166 180 155 123
1029.35 755.604 2174 178 153 121
1037.76 757.342 2179 179 154 122
1046.69 759.427 2185 181 158 126
1051.79 758.732 2183 182 159 129
1059.31 759.775 2186 181 158 128
1066.84 760.817 2189 181 158 128
1074.39 761.86 2192 183 159 131
1081.95 762.903 2195 184 160 132
1088.55 763.25 2196 185 161 133
1097.14 764.988 2201 181 159 131
1105.75 766.726 2206 180 158 130
1112.89 767.421 2208 177 158 129
1119.52 767.769 2209 177 159 133
1126.17 768.116 2210 181 168 144
1133.84 769.159 2213 185 172 149
1142.05 770.549 2217 187 176 153
1150.79 772.287 2222 198 189 168
1160.09 774.372 2228 172 165 144
1169.41 776.458 2234 167 164 144
1177.2 777.5 2237 164 161 145
1184.47 778.196 2239 156 156 138
1191.22 778.543 2240 158 159 145
1198.5 779.238 2242 154 159 148
1205.27 779.586 2243 151 158 147
1208.79 777.848 2238 152 158 150
1213.92 777.153 2236 154 160 152
1220.68 777.5 2237 153 160 149
1231.28 780.281 2245 152 159 148
1242.47 783.409 2254 154 161 150
1251.5 785.147 2259 155 160 149
1259.44 786.19 2262 153 160 149
1266.28 786.537 2263 152 159 148
1272.01 786.19 2262 155 162 151
1277.72 785.842 2261 151 158 146
1285.7 786.885 2264 142 149 137
1291.99 786.885 2264 153 160 148
1298.85 787.232 2265 155 162 150
1306.87 788.275 2268 155 162 151
1316.64 790.36 2274 154 161 150
1324.7 791.403 2277 154 161 149
1329.27 790.36 2274 153 160 148
1339.11 792.446 2280 155 162 150
1347.8 793.836 2284 153 160 148
1358.88 796.617 2292 156 163 151
1369.42 799.049 2299 155 162 150
1374.6 798.354 2297 155 162 150
1378.58 796.964 2293 155 162 150
1381.92 795.226 2288 154 161 149
1389.49 795.921 2290 155 162 150
1396.46 796.269 2291 154 161 149
1402.82 796.269 2291 153 162 150
1414.1 799.049 2299 152 161 149
1422.34 800.092 2302 155 162 151
1426.87 799.049 2299 154 161 150
1429.51 796.964 2293 155 162 151
1436.51 797.312 2294 154 161 150
1449.8 801.135 2305 152 161 150
1456.2 801.135 2305 151 160 149
1464.5 802.178 2308 152 161 150
1474.76 800.787 2304 151 160 149
1493.37 807.391 2323 153 162 151
1501.11 808.086 2325 152 161 150
1501.73 804.958 2316 150 159 148
1511.42 806.696 2321 152 161 150
1519.83 807.739 2324 153 159 151
1536.13 812.952 2339 152 158 150
1554.95 812.604 2338 152 161 150
218.379 184.28 526 143 113 80
233.214 195.491 558 157 127 92
240.653 200.396 572 148 118 85
244.359 202.148 577 137 107 74
247.666 203.549 581 135 105 72
248.85 203.199 580 143 112 81
250.029 202.849 579 146 115 84
251.202 202.498 578 153 125 93
253.245 202.849 579 158 132 100
255.293 203.199 580 159 134 102
258.675 204.6 584 165 142 110
261.188 205.301 586 168 145 113
265.057 207.053 591 172 149 119
268.504 208.454 595 175 152 122
271.972 209.855 599 175 152 122
1003.33 755.69 2157 180 157 125
1011.66 757.442 2162 179 154 121
1020.02 759.193 2167 177 152 119
1029.35 761.646 2174 166 141 108
1036.34 762.347 2176 163 138 105
1044.29 763.748 2180 167 142 110
1051.31 764.449 2182 170 145 113
1058.34 765.149 2184 169 146 116
1064.89 765.5 2185 171 148 118
1071.94 766.2 2187 176 153 123
1080.48 767.952 2192 178 155 125
1088.55 769.353 2196 177 154 124
1096.64 770.755 2200 183 159 131
1103.75 771.455 2202 181 159 131
1111.37 772.506 2205 179 157 129
1115.98 771.455 2202 177 158 129
1124.13 772.857 2206 179 162 133
1131.28 773.557 2208 183 168 139
1140.5 775.66 2214 184 171 142
1148.72 777.061 2218 186 174 145
1158 779.163 2224 188 176 149
1167.84 781.615 2231 186 176 151
1176.67 783.367 2236 185 177 152
1184.47 784.418 2239 168 165 145
1192.28 785.469 2242 163 161 143
1199.04 785.82 2243 161 158 142
1206.88 786.871 2246 159 160 146
1210.96 785.469 2242 154 159 148
1217.18 785.469 2242 152 159 148
1222.86 785.119 2241 154 161 150
1232.92 787.571 2248 154 161 150
1241.92 789.323 2253 153 160 149
1250.95 791.075 2258 152 159 148
1258.33 791.775 2260 154 161 150
1264.05 791.425 2259 153 158 147
1269.19 790.724 2257 155 160 149
1274.33 790.024 2255 154 161 149
1284.57 792.476 2262 137 144 132
1292.56 793.527 2265 150 157 146
1299.42 793.877 2266 155 162 151
1307.44 794.928 2269 154 161 150
1316.64 796.68 2274 155 162 151
1325.86 798.432 2279 153 160 149
1332.78 798.782 2280 154 161 149
1343.22 801.235 2287 155 162 150
1350.75 801.935 2289 154 162 147
1356.51 801.585 2288 153 161 146
1364.06 802.286 2290 154 161 149
1369.22 801.585 2288 154 161 149
1373.17 800.184 2284 154 161 149
1378.3 799.483 2282 156 163 151
1390.7 802.986 2292 151 160 148
1398.29 803.687 2294 152 159 147
1407.72 805.439 2299 151 160 149
1416.56 806.84 2303 152 159 148
1427.28 809.293 2310 154 161 150
1431.84 808.242 2307 153 160 149
1429.51 803.337 2293 154 160 152
1432.75 801.585 2288 154 163 152
1447.28 806.139 2301 152 160 152
1461.25 810.344 2313 149 157 149
1471.48 812.446 2319 153 161 153
1470.91 808.592 2308 151 160 149
1488.23 811.044 2315 152 161 150
1501.11 814.548 2325 152 161 150
1510.16 815.949 2329 153 162 151
1517.21 812.796 2320 153 159 151
1531.53 817 2332 155 162 151
1538.01 817 2332 152 159 148
1537.2 813.146 2321 153 160 149
1547.63 815.248 2327 152 159 148
226.944 191.745 543 129 94 62
237.708 199.514 565 129 94 62
243.088 202.692 574 134 102 69
246.387 204.105 578 133 98 66
248.421 204.458 579 136 101 70
249.165 203.752 577 140 106 71
250.333 203.398 576 145 113 78
251.932 203.398 576 153 121 86
253.972 203.752 577 152 122 87
256.903 204.811 580 159 131 98
260.296 206.223 584 167 141 108
263.712 207.636 588 168 143 110
267.15 209.048 592 170 148 114
270.156 210.108 595 172 149 117
274.092 211.873 600 178 155 123
1012.13 763.803 2163 169 144 111
1021.43 766.275 2170 171 146 113
1029.35 767.688 2174 164 137 101
1035.38 767.688 2174 152 125 89
1042.38 768.394 2176 154 126 93
1050.35 769.807 2180 159 131 99
1058.82 771.572 2185 156 130 98
1064.4 771.219 2184 164 138 106
1070.47 771.219 2184 164 138 109
1078.01 772.278 2187 172 147 115
1086.56 774.044 2192 174 151 119
1094.14 775.103 2195 175 152 122
1100.74 775.456 2196 180 157 127
1107.34 775.81 2197 180 157 127
1113.44 775.81 2197 176 155 125
1121.58 777.222 2201 179 158 128
1129.23 778.281 2204 182 161 131
1138.44 780.4 2210 185 167 134
1146.65 781.813 2214 191 173 139
1155.92 783.931 2220 193 175 141
1165.23 786.05 2226 189 173 139
1171.93 786.403 2227 190 174 141
1180.76 788.169 2232 184 171 142
1189.62 789.934 2237 179 166 142
1198.5 791.7 2242 164 160 143
1205.8 792.406 2244 163 160 144
1209.33 790.641 2239 157 160 148
1214.47 789.934 2237 152 157 145
1219.59 789.228 2235 153 160 148
1227.44 790.288 2238 153 160 148
1239.16 793.819 2248 154 161 150
1248.73 795.938 2254 154 161 150
1257.22 797.35 2258 152 157 146
1261.81 796.291 2255 153 158 147
1268.07 796.291 2255 156 161 149
1273.77 795.938 2254 155 162 150
1284 798.409 2261 144 151 139
1291.99 799.469 2264 151 160 148
1298.85 799.822 2265 154 161 150
1304.56 799.469 2264 155 162 151
1314.32 801.587 2270 154 161 150
1322.37 802.647 2273 153 160 149
1331.61 804.412 2278 154 161 150
1340.87 806.178 2283 154 161 149
1348.98 807.237 2286 157 162 150
1353.55 806.178 2283 153 160 148
1359.89 806.178 2283 153 160 149
1364.43 805.119 2280 152 159 148
1370.16 804.766 2279 155 162 151
1377.7 805.472 2281 153 162 151
1391.31 809.709 2293 151 160 149
1400.12 811.122 2297 152 161 150
1408.94 812.534 2301 151 160 149
1419.02 814.653 2307 154 161 150
1432.84 818.891 2319 155 162 151
1433.08 815.359 2309 153 162 151
1432.63 811.475 2298 154 163 152
1432.75 807.944 2288 150 159 148
1444.14 810.769 2296 152 160 152
1462.51 817.478 2315 151 159 151
1476.56 821.715 2327 151 159 151
1477.28 818.537 2318 150 158 150
1506.28 823.834 2333 152 161 150
1534.16 824.894 2336 153 160 149
1537.35 823.128 2331 152 159 148
1543.16 822.775 2330 155 162 151
1541.65 818.537 2318 152 159 148
220.675 187.916 528 107 72 40
234.763 198.593 558 106 71 39
241.394 202.864 570 112 77 45
244.256 203.932 573 119 82 51
247.134 204.999 576 127 90 58
248.302 204.643 575 134 98 63
249.898 204.643 575 136 102 66
251.058 204.287 574 142 108 72
252.652 204.287 574 149 117 82
255.574 205.355 577 150 120 85
258.959 206.779 581 153 126 90
262.367 208.202 585 158 132 99
265.796 209.626 589 163 141 107
268.34 210.338 591 166 144 110
271.351 211.405 594 170 147 115
274.839 212.829 598 173 152 120
1020.49 771.594 2168 163 136 100
1026.03 771.238 2167 161 131 96
1032.05 771.238 2167 147 117 84
1039.98 772.662 2171 141 111 78
1049.87 775.509 2179 143 112 81
1058.34 777.289 2184 146 115 84
1064.89 777.645 2185 148 120 88
1071.45 778 2186 156 128 96
1079 779.068 2189 158 133 101
1086.56 780.136 2192 167 142 110
1093.65 780.848 2194 168 145 113
1099.24 780.492 2193 172 149 119
1105.83 780.848 2194 176 153 123
1112.43 781.204 2195 177 156 126
1121.58 783.339 2201 177 156 126
1128.72 784.051 2203 178 157 127
1137.41 785.83 2208 179 158 126
1145.1 786.898 2211 184 164 130
1155.4 789.745 2219 187 167 131
1164.18 791.525 2224 191 171 135
1172.46 792.948 2228 187 169 133
1178.12 792.592 2227 185 168 138
1186.43 794.016 2231 183 170 141
1195.3 795.796 2236 174 165 144
1204.19 797.575 2241 162 158 141
1208.79 796.507 2238 159 158 144
1215.01 796.507 2238 154 157 145
1220.68 796.151 2237 153 160 148
1229.08 797.575 2241 156 161 149
1238.61 799.71 2247 152 159 147
1247.62 801.49 2252 153 160 148
1255.55 802.558 2255 153 160 148
1261.25 802.202 2254 154 159 147
1264.7 800.422 2249 156 161 147
1270.94 800.422 2249 154 161 149
1280.59 802.558 2255 144 152 137
1292.56 806.117 2265 151 158 146
1300.57 807.184 2268 153 160 148
1306.87 807.184 2268 156 163 152
1313.17 807.184 2268 154 161 150
1320.05 807.54 2269 154 161 150
1328.68 808.964 2273 152 159 148
1337.34 810.388 2277 152 159 148
1346.03 811.811 2281 154 161 150
1351.18 811.099 2279 153 160 148
1358.1 811.455 2280 153 160 148
1362.04 810.032 2276 154 161 149
1370.16 811.099 2279 151 160 148
1380.72 813.591 2286 151 160 149
1394.35 817.861 2298 151 160 149
1404.38 819.997 2304 151 160 149
1412.62 821.065 2307 153 160 149
1420.25 821.776 2309 154 161 150
1427.9 822.488 2311 156 163 152
1430.59 820.353 2305 154 163 152
1427.02 814.658 2289 154 163 152
1447.28 818.929 2301 151 159 151
1465.67 825.691 2320 150 158 150
1477.19 828.538 2328 152 160 152
1481.74 827.471 2325 149 157 149
1481.8 823.912 2315 150 158 150
1491.44 825.691 2320 151 159 151
1500.47 827.115 2324 151 159 151
1546.64 838.148 2355 153 160 149
1544.6 833.521 2342 153 160 149
1554.28 831.742 2337 152 159 148
215.242 184.72 515 131 100 69
231.818 197.633 551 141 110 79
239.277 202.655 565 105 72 41
242.977 204.448 570 109 74 43
245.418 205.165 572 113 78 46
247.438 205.524 573 120 86 51
249.029 205.524 573 125 91 55
249.746 204.807 571 124 90 54
251.771 205.165 572 133 102 65
254.245 205.883 574 146 114 79
257.622 207.317 578 148 118 83
261.021 208.752 582 154 127 91
263.991 209.828 585 159 134 98
266.977 210.904 588 166 141 108
269.981 211.98 591 165 143 109
272.541 212.698 593 169 146 114
1017.19 775.109 2161 127 97 62
1023.19 775.109 2161 139 107 74
1030.62 776.185 2164 135 103 70
1040.46 779.054 2172 133 98 66
1050.35 781.924 2180 136 101 70
1059.79 784.434 2187 139 104 72
1066.35 784.793 2188 144 112 79
1073.9 785.869 2191 147 115 80
1079.98 785.869 2191 151 121 86
1086.07 785.869 2191 157 130 94
1091.65 785.51 2190 167 141 108
1097.73 785.51 2190 168 143 110
1106.33 787.304 2195 171 149 115
1116.48 790.173 2203 175 152 120
1124.64 791.608 2207 175 154 122
1131.28 791.967 2208 177 156 124
1138.96 793.043 2211 178 157 125
1148.2 795.195 2217 182 161 129
1158 797.706 2224 181 161 127
1164.7 798.064 2225 184 164 130
1170.88 798.064 2225 187 167 131
1177.06 798.064 2225 185 167 133
1185.37 799.499 2229 189 172 142
1193.69 800.934 2233 181 168 144
1202.58 802.727 2238 173 162 141
1207.71 802.01 2236 160 158 140
1213.38 801.651 2235 159 158 144
1220.68 802.368 2237 155 160 146
1229.08 803.803 2241 155 160 148
1236.96 804.879 2244 156 161 149
1246.51 807.031 2250 154 161 149
1254.43 808.107 2253 154 161 149
1260.69 808.107 2253 154 159 147
1265.26 807.031 2250 156 161 147
1272.64 807.749 2252 155 160 148
1281.16 809.183 2256 148 156 141
1290.85 811.335 2262 146 153 141
1299.42 812.77 2266 153 160 148
1308.02 814.205 2270 152 159 147
1313.74 813.846 2269 154 161 150
1317.72 812.411 2265 153 160 149
1326.35 813.846 2269 152 159 148
1332.06 813.488 2268 154 161 150
1341.31 815.281 2273 153 160 149
1345.84 814.205 2270 154 161 150
1355.72 816.357 2276 154 161 149
1364.43 817.792 2280 154 161 150
1375.57 820.661 2288 151 160 149
1384.34 822.096 2292 154 163 151
1391.31 822.455 2293 152 161 150
1399.51 823.531 2296 152 161 150
1410.78 826.4 2304 150 159 148
1416.56 826.041 2303 152 159 147
1422.34 825.683 2302 155 162 150
1426.25 824.248 2298 152 161 149
1425.77 820.302 2287 154 163 151
1434 821.378 2290 151 160 149
1453.57 828.911 2311 151 160 149
1461.88 829.987 2314 150 159 148
1470.21 831.063 2317 151 160 149
1475.37 830.346 2315 149 157 149
1481.16 829.987 2314 152 160 152
1484.37 828.193 2309 149 157 149
1502.4 834.65 2327 150 158 150
1510.16 835.367 2329 153 159 151
211.48 182.899 506 173 144 115
229.714 197.357 546 171 144 115
237.583 202.779 561 172 143 114
241.272 204.586 566 175 146 117
243.702 205.309 568 171 140 109
246.143 206.032 570 149 119 84
247.725 206.032 570 144 113 76
248.871 205.671 569 126 95 58
250.451 205.671 569 125 96 59
253.36 206.755 572 126 97 60
256.285 207.839 575 136 109 73
259.676 209.285 579 145 118 82
263.088 210.731 583 153 128 92
266.523 212.177 587 159 135 99
269.067 212.9 589 164 139 106
271.622 213.623 591 168 146 112
276.499 216.153 598 173 150 118
1021.77 780.03 2158 106 75 44
1029.67 781.476 2162 107 74 43
1040.94 785.452 2173 117 80 49
1050.35 787.982 2180 122 85 54
1056.89 788.344 2181 131 94 62
1063.43 788.705 2182 138 102 66
1071.45 790.151 2186 139 105 69
1079.98 791.958 2191 147 116 79
1085.57 791.597 2190 151 119 84
1091.65 791.597 2190 151 124 88
1099.24 792.681 2193 158 132 99
1108.35 794.85 2199 163 141 107
1118.51 797.742 2207 166 144 110
1125.66 798.465 2209 171 150 118
1130.77 797.742 2207 176 155 123
1137.93 798.465 2209 178 157 127
1146.65 800.272 2214 177 156 124
1155.92 802.441 2220 177 157 123
1162.09 802.441 2220 185 165 131
1170.88 804.248 2225 187 167 131
1178.12 804.971 2227 186 166 132
1184.83 805.332 2228 189 171 138
1191.55 805.694 2229 188 173 144
1199.89 807.14 2233 176 163 139
1207.17 807.862 2235 166 160 143
1214.47 808.585 2237 163 160 144
1222.86 810.031 2241 159 158 142
1231.83 811.839 2246 156 161 147
1237.51 811.477 2245 152 157 143
1245.96 812.923 2249 154 162 147
1252.76 813.284 2250 151 158 146
1259.57 813.646 2251 150 157 145
1263.01 811.839 2246 154 161 149
1271.51 813.284 2250 154 159 147
1280.02 814.73 2254 152 157 143
1290.85 817.622 2262 149 154 142
1300.57 819.791 2268 155 160 148
1308.6 820.875 2271 154 161 149
1311.43 818.706 2265 153 160 148
1315.97 817.622 2262 151 158 147
1324.01 818.706 2265 153 160 149
1330.88 819.068 2266 154 161 150
1337.77 819.429 2267 155 162 151
1345.84 820.514 2270 155 162 150
1358.1 824.128 2280 154 161 149
1366.82 825.574 2284 154 161 149
1374.97 826.658 2287 153 160 148
1380.11 825.935 2285 154 161 149
1388.88 827.381 2289 153 160 148
1397.07 828.466 2292 151 160 148
1408.94 831.719 2301 151 160 148
1412.26 829.912 2296 150 160 145
1416.78 828.827 2293 152 161 149
1416.94 825.213 2283 152 161 149
1425.15 826.297 2286 150 159 147
1436.51 829.189 2294 151 160 148
1452.94 834.972 2310 151 160 149
1459.99 835.333 2311 150 159 148
1462.6 833.165 2305 151 160 149
1472.18 834.972 2310 152 161 150
1478.6 834.972 2310 150 158 150
1486.94 836.056 2313 150 158 150
1492.07 835.333 2311 149 157 149
1516.56 838.225 2319 152 159 148
228.031 197.417 542 172 146 117
237.159 203.974 560 170 143 114
241.272 206.159 566 171 144 115
243.273 206.523 567 171 145 113
245.279 206.888 568 181 153 120
246.856 206.888 568 185 158 122
247.996 206.523 567 189 159 124
249.57 206.523 567 184 157 121
252.031 207.252 569 157 130 94
254.948 208.345 572 135 108 72
258.33 209.802 576 138 111 75
262.186 211.623 581 147 122 86
265.615 213.08 585 155 130 94
268.61 214.172 588 162 137 104
271.622 215.265 591 163 141 107
275.112 216.722 595 169 147 113
1030.62 788.213 2164 130 99 68
1040.94 791.491 2173 106 71 40
1049.87 793.677 2179 110 75 44
1056.89 794.405 2181 115 80 48
1062.45 794.041 2180 123 89 54
1070.96 795.862 2185 127 93 57
1079.49 797.683 2190 135 101 65
1086.07 798.047 2191 147 116 79
1091.65 797.683 2190 148 118 83
1099.74 799.14 2194 153 126 90
1107.34 800.233 2197 159 134 98
1118 803.511 2206 166 141 108
1124.13 803.511 2206 166 144 110
1131.28 804.239 2208 173 150 118
1138.44 804.968 2210 175 152 120
1146.65 806.425 2214 176 155 123
1153.84 807.153 2216 176 155 123
1160.52 807.518 2217 178 158 124
1168.25 808.61 2220 183 163 127
1176 809.703 2223 185 165 129
1182.71 810.067 2224 188 168 134
1189.95 810.796 2226 184 167 138
1198.82 812.617 2231 177 161 135
1206.09 813.345 2233 169 157 138
1213.92 814.438 2236 162 156 139
1221.22 815.167 2238 161 159 141
1229.08 816.259 2241 156 159 145
1236.41 816.988 2243 154 159 145
1245.41 818.809 2248 152 159 147
1251.09 818.445 2247 151 158 146
1256.77 818.081 2246 150 157 145
1263.57 818.445 2247 152 159 147
1272.64 820.266 2252 154 159 147
1282.3 822.451 2258 155 160 146
1290.28 823.544 2261 139 144 132
1300 825.73 2267 156 161 149
1307.44 826.458 2269 155 162 150
1311.43 825.001 2265 155 160 148
1317.14 824.637 2264 152 159 147
1324.59 825.365 2266 153 160 148
1328.53 823.908 2262 155 162 150
1331.87 822.087 2257 153 160 149
1339.91 823.18 2260 152 159 148
1354.53 828.279 2274 153 160 148
1365.63 831.193 2282 154 161 149
1373.77 832.286 2285 153 160 148
1378.3 831.193 2282 153 160 148
1382.82 830.1 2279 153 160 148
1390.97 831.193 2282 152 159 147
1399.76 832.65 2286 151 160 148
1407.34 833.379 2288 152 161 149
1410.6 831.557 2283 152 161 149
1417.56 831.922 2284 151 160 148
1439.1 833.379 2288 151 160 148
1452.41 837.385 2299 149 158 146
1458.79 837.385 2299 151 160 149
1465.17 837.385 2299 148 157 146
1476.04 839.935 2306 150 159 148
1483.73 840.663 2308 151 160 149
226.769 197.823 539 177 150 121
235.889 204.429 557 177 150 121
240.42 206.998 564 174 148 119
242.415 207.365 565 177 152 120
244.847 208.099 567 176 151 119
245.987 207.732 566 181 156 124
247.559 207.732 566 183 158 126
249.13 207.732 566 184 159 127
251.145 208.099 567 192 167 134
254.056 209.2 570 195 170 137
257.882 211.035 575 190 165 132
261.283 212.503 579 145 121 85
264.707 213.972 583 141 117 80
267.697 215.073 586 147 123 86
270.703 216.174 589 149 128 90
274.188 217.642 593 156 135 97
1046.97 797.53 2173 175 146 117
1052.04 796.796 2171 169 139 106
1058.56 797.163 2172 149 119 84
1066.55 798.631 2176 134 103 66
1077.52 802.301 2186 126 95 58
1086.07 804.137 2191 124 95 58
1093.15 804.871 2193 137 107 72
1100.24 805.605 2195 143 116 80
1106.33 805.605 2195 153 128 92
1114.96 807.44 2200 159 135 99
1121.58 807.807 2201 162 140 106
1129.23 808.908 2204 169 147 113
1137.93 810.743 2209 171 148 116
1144.58 811.11 2210 173 150 118
1152.28 812.211 2213 172 151 119
1158.42 812.211 2213 174 154 120
1166.67 813.679 2217 177 157 123
1173.89 814.413 2219 181 161 127
1181.11 815.147 2221 185 165 131
1188.88 816.248 2224 182 163 134
1198.28 818.45 2230 175 158 129
1205.55 819.184 2232 168 154 134
1213.38 820.285 2235 168 160 143
1217.95 819.184 2232 164 160 143
1225.24 819.918 2234 156 159 145
1233.65 821.386 2238 154 159 145
1242.64 823.221 2243 153 160 148
1251.09 824.69 2247 153 160 148
1256.21 823.956 2245 151 158 146
1263.01 824.323 2246 149 157 142
1270.38 825.057 2248 155 160 148
1282.3 828.727 2258 153 158 144
1290.28 829.828 2261 141 146 134
1298.28 830.929 2264 155 160 148
1302.26 829.461 2260 153 161 146
1307.38 828.727 2258 153 161 146
1312.48 827.993 2256 154 161 149
1322.84 830.562 2263 152 159 147
1327.95 829.828 2261 154 161 149
1331.87 828.36 2257 151 158 146
1339.91 829.461 2260 153 160 148
1352.14 833.131 2270 152 159 147
1363.23 836.067 2278 152 159 147
1373.17 838.269 2284 154 161 149
1374.07 834.966 2275 153 160 148
1379.78 834.599 2274 153 160 148
1386.1 834.599 2274 152 159 147
1397.92 837.902 2283 153 160 148
1404.88 838.269 2284 152 161 149
1413.69 839.737 2288 153 162 150
1415.7 837.168 2281 150 159 147
1446.09 840.104 2289 148 157 146
1458.16 843.407 2298 149 158 147
1464.54 843.407 2298 151 160 148
1470.92 843.407 2298 149 158 146
1501.65 846.344 2306 149 158 147
1495.63 839.37 2287 151 158 146
225.928 198.581 537 181 154 125
235.889 205.977 557 182 155 126
240.42 208.566 564 178 152 123
242.415 208.935 565 177 151 122
244.415 209.305 566 177 152 120
245.987 209.305 566 182 157 125
247.996 209.675 567 187 162 130
249.57 209.675 567 185 162 130
250.702 209.305 566 189 167 133
253.165 210.045 568 192 170 136
256.088 211.154 571 190 168 132
260.381 213.373 577 191 169 133
263.345 214.482 580 174 153 115
266.783 215.962 584 156 135 97
269.783 217.071 587 144 123 85
273.263 218.55 591 146 125 87
277.23 220.399 596 160 139 101
1053.01 803.569 2173 171 145 113
1060.02 804.309 2175 181 153 120
1067.53 805.418 2178 185 158 122
1076.04 807.267 2183 189 159 124
1085.08 809.486 2189 184 157 121
1092.15 810.226 2191 134 107 71
1098.23 810.226 2191 136 109 73
1105.83 811.335 2194 145 120 84
1115.47 813.924 2201 155 130 94
1123.11 815.033 2204 162 137 104
1130.26 815.773 2206 163 141 107
1136.9 816.142 2207 169 147 113
1143.54 816.512 2208 169 147 111
1151.76 817.991 2212 170 148 114
1159.99 819.471 2216 173 153 117
1167.2 820.21 2218 175 155 121
1173.36 820.21 2218 179 159 125
1180.58 820.95 2220 181 161 127
1188.88 822.429 2224 181 160 130
1198.28 824.648 2230 177 158 129
1203.93 824.278 2229 163 150 127
1211.75 825.387 2232 164 154 135
1216.31 824.278 2229 165 159 142
1224.15 825.387 2232 160 159 145
1231.45 826.127 2234 154 157 143
1240.42 827.976 2239 151 156 144
1249.98 830.195 2245 155 160 148
1255.09 829.455 2243 153 158 146
1263.01 830.565 2246 153 160 148
1269.24 830.565 2246 151 158 146
1282.3 835.002 2258 154 161 149
1288 834.632 2257 134 141 129
1295.98 835.742 2260 155 162 150
1297.07 832.414 2251 154 161 149
1302.74 832.044 2250 152 159 147
1308.41 831.674 2249 156 161 149
1316.99 833.153 2253 156 161 149
1325.01 834.263 2256 155 160 148
1330.1 833.523 2254 156 161 149
1335.17 832.783 2252 152 157 145
1346.78 836.112 2261 156 161 149
1358.45 839.44 2270 154 161 150
1370.76 843.138 2280 153 160 148
1375.88 842.398 2278 152 159 148
1407.34 846.096 2288 149 158 146
1409.37 843.507 2281 151 160 148
1442.93 844.617 2284 151 160 149
1451.18 845.726 2287 152 161 150
1487.58 855.711 2314 151 160 148
1495.79 849.424 2297 152 159 147
225.507 199.701 536 181 156 124
235.889 207.525 557 178 153 121
240.42 210.133 564 181 156 124
242.844 210.878 566 178 155 125
244.415 210.878 566 177 154 124
246.422 211.251 567 180 157 127
247.996 211.251 567 182 159 129
249.13 210.878 566 186 163 133
251.145 211.251 567 189 166 134
252.719 211.251 567 190 167 135
255.639 212.369 570 191 168 136
258.124 213.114 572 192 170 134
261.529 214.604 576 186 164 128
264.499 215.722 579 185 163 127
267.485 216.839 582 184 162 126
270.951 218.33 586 179 159 123
275.369 220.565 592 182 162 126
1057.58 808.491 2170 176 151 119
1065.08 809.608 2173 181 156 124
1074.07 811.844 2179 183 158 126
1082.1 813.334 2183 184 159 127
1090.66 815.197 2188 192 167 134
1096.23 814.825 2187 195 170 137
1104.82 816.687 2192 163 139 103
1113.95 818.923 2198 141 117 80
1122.6 820.786 2203 147 123 86
1129.23 821.158 2204 149 128 90
1136.38 821.904 2206 156 135 97
1141.99 821.531 2205 159 137 101
1151.24 823.766 2211 162 142 106
1159.99 825.629 2216 175 155 119
1168.25 827.12 2220 179 159 125
1172.3 825.629 2216 180 159 127
1178.98 826.002 2217 181 160 128
1187.28 827.492 2221 181 160 130
1197.21 830.1 2228 178 159 130
1203.39 830.1 2228 165 152 128
1211.21 831.218 2231 158 149 128
1215.22 829.728 2227 163 157 140
1222.5 830.473 2229 159 158 144
1230.34 831.59 2232 156 159 145
1240.97 834.571 2240 152 157 145
1251.09 837.179 2247 155 160 146
1255.65 836.061 2244 152 157 145
1262.45 836.434 2245 151 158 146
1268.11 836.061 2244 151 158 146
1279.46 839.415 2253 153 160 148
1286.28 839.787 2254 137 144 132
1292.54 839.787 2254 152 159 147
1296.5 838.297 2250 152 159 147
1302.16 837.924 2249 153 160 148
1308.41 837.924 2249 152 159 147
1318.75 840.532 2256 156 161 149
1326.77 841.65 2259 154 159 147
1333.05 841.65 2259 153 160 148
1338.73 841.277 2258 151 158 146
1345 841.277 2258 153 160 148
1356.05 844.258 2266 151 158 146
1366.55 846.866 2273 154 162 147
1375.88 848.729 2278 150 159 147
1405.49 851.337 2285 151 161 146
1409.37 849.847 2281 151 161 146
1490.78 860.279 2309 152 161 149
1524.82 861.397 2312 152 157 145
225.086 200.815 535 175 150 118
235.889 209.073 557 173 148 116
239.993 211.325 563 175 152 120
242.415 212.076 565 174 151 121
244.415 212.451 566 177 154 124
246.856 213.202 568 182 159 129
248.433 213.202 568 183 160 130
250.011 213.202 568 182 159 129
251.145 212.827 567 187 164 132
252.274 212.451 566 187 164 132
254.294 212.827 567 187 164 132
256.771 213.577 569 190 168 134
259.259 214.328 571 187 165 131
261.758 215.079 573 184 164 130
264.728 216.205 576 183 163 129
268.177 217.706 580 183 163 129
272.113 219.583 585 183 165 131
276.545 221.835 591 185 167 133
1058.07 814.897 2171 177 152 120
1065.57 816.023 2174 182 157 125
1074.07 817.9 2179 187 162 130
1082.1 819.401 2183 185 162 130
1089.16 820.152 2185 189 167 133
1094.73 819.776 2184 192 170 136
1104.82 822.779 2192 190 168 132
1113.44 824.656 2197 183 162 124
1122.6 826.908 2203 156 135 97
1128.21 826.533 2202 145 124 86
1133.81 826.158 2201 146 125 87
1139.92 826.158 2201 166 144 108
1149.67 828.785 2208 178 158 122
1161.04 832.539 2218 181 161 125
1167.72 832.914 2219 183 163 129
1171.24 831.037 2214 180 159 127
1176.86 830.662 2213 182 161 129
1185.14 832.163 2217 180 159 127
1194.52 834.415 2223 178 160 127
1200.69 834.415 2223 170 157 128
1209.04 835.917 2227 163 153 128
1214.13 835.166 2225 164 157 136
1222.5 836.667 2229 163 161 143
1230.34 837.794 2232 156 157 143
1240.97 840.796 2240 152 157 143
1251.09 843.424 2247 152 157 143
1256.21 842.673 2245 152 157 145
1262.45 842.673 2245 153 160 148
1268.11 842.298 2244 152 159 147
1277.19 844.175 2249 151 158 146
1282.86 843.799 2248 140 147 135
1291.4 845.301 2252 149 157 142
1294.77 843.424 2247 155 160 146
1303.32 844.925 2251 153 161 146
1311.9 846.427 2255 153 160 148
1321.67 848.679 2261 152 159 147
1328.53 849.054 2262 152 159 147
1331.87 847.177 2257 153 160 148
1336.35 846.051 2254 151 158 146
1344.4 847.177 2257 153 161 146
1353.66 849.054 2262 153 161 146
1365.35 852.432 2271 154 162 147
1373.47 853.558 2274 150 159 147
1384.03 856.186 2281 152 161 149
1429.62 856.937 2283 150 159 148
224.245 201.546 533 169 147 113
235.465 210.243 556 169 147 113
240.42 213.268 564 173 150 118
242.844 214.024 566 175 152 120
244.415 214.024 566 176 153 123
246.422 214.402 567 178 155 125
247.996 214.402 567 179 156 126
250.011 214.781 568 180 157 127
252.031 215.159 569 185 162 132
252.719 214.402 567 185 162 132
254.294 214.402 567 184 161 131
255.417 214.024 566 183 160 130
257.443 214.402 567 185 162 132
259.474 214.781 568 183 160 130
262.43 215.915 571 182 161 131
265.402 217.049 574 181 160 128
269.322 218.94 579 183 162 130
272.334 220.074 582 183 163 129
277.245 222.721 589 185 167 133
1059.04 821.687 2173 177 154 124
1067.04 823.199 2177 180 157 127
1074.56 824.334 2180 182 159 129
1081.61 825.09 2182 186 163 133
1088.16 825.468 2183 189 166 134
1093.72 825.09 2182 190 167 135
1102.3 826.981 2187 192 170 136
1109.39 827.737 2189 187 165 129
1119.03 830.384 2196 186 164 128
1126.67 831.518 2199 183 161 125
1133.29 831.896 2200 177 158 120
1140.43 832.653 2202 182 162 126
1149.67 834.921 2208 183 165 129
1158.95 837.19 2214 187 169 133
1164.04 836.434 2212 186 168 134
1168.6 835.3 2209 182 164 131
1175.79 836.056 2211 182 161 129
1185.14 838.325 2217 182 161 129
1193.98 840.215 2222 177 159 126
1199.07 839.459 2220 169 156 127
1207.95 841.35 2225 162 152 127
1214.13 841.35 2225 163 156 133
1222.5 842.862 2229 160 158 140
1229.24 843.24 2230 158 160 143
1239.87 846.265 2238 152 157 143
1248.86 848.156 2243 152 157 143
1256.21 848.912 2245 153 158 146
1262.45 848.912 2245 151 158 146
1268.11 848.534 2244 152 159 147
1272.64 847.4 2241 149 156 144
1280.58 848.534 2244 139 146 134
1287.95 849.291 2246 152 160 145
1296.5 850.803 2250 154 159 145
1303.9 851.559 2252 154 159 145
1312.48 853.072 2256 154 159 145
1322.25 855.341 2262 151 159 144
1328.53 855.341 2262 150 157 145
1335.41 855.719 2263 151 158 146
1338.73 853.828 2258 151 158 146
1345.59 854.206 2259 152 159 147
1354.86 856.097 2264 153 160 148
1361.74 856.475 2265 151 158 146
1368.64 856.853 2266 151 158 146
1375.54 857.231 2267 154 161 149
1423.9 863.66 2284 153 160 149
233.348 209.884 551 172 147 114
239.567 214.074 562 170 148 114
241.986 214.835 564 174 151 119
243.984 215.216 565 176 153 121
245.987 215.597 566 178 155 123
247.996 215.978 567 178 152 123
250.451 216.74 569 180 154 125
252.031 216.74 569 179 156 126
253.611 216.74 569 179 156 126
254.294 215.978 567 181 158 128
255.417 215.597 566 178 154 126
256.988 215.597 566 179 155 127
259.474 216.359 568 179 155 127
261.511 216.74 569 179 157 129
264.015 217.502 571 177 156 124
266.996 218.645 574 178 158 124
269.994 219.787 577 181 161 127
273.95 221.692 582 186 166 132
278.407 223.977 588 183 165 131
1059.53 828.107 2174 177 154 124
1067.53 829.63 2178 182 159 129
1074.07 830.011 2179 183 160 130
1080.12 830.011 2179 185 162 132
1086.67 830.392 2180 187 164 132
1093.72 831.154 2182 187 164 132
1101.8 832.678 2186 187 164 132
1109.39 833.82 2189 189 167 133
1118.02 835.725 2194 184 164 130
1125.13 836.487 2196 184 164 130
